-80.056145 586.516948 224.000000
-80.758392 584.644289 224.000000
-81.460638 582.771631 224.000000
-82.162885 580.898972 224.000000
-82.865132 579.026314 224.000000
-83.567379 577.153656 224.000000
-84.269626 575.280997 224.000000
-84.971873 573.408339 224.000000
-85.674120 571.535681 224.000000
-86.376367 569.663022 224.000000
-87.078614 567.790364 224.000000
-87.780860 565.917706 224.000000
-88.483107 564.045047 224.000000
-89.185354 562.172389 224.000000
-89.887601 560.299731 224.000000
-90.589848 558.427072 224.000000
-91.292095 556.554414 224.000000
-91.994342 554.681755 224.000000
-92.696589 552.809097 224.000000
-93.398835 550.936439 224.000000
-94.101082 549.063780 224.000000
-94.803329 547.191122 224.000000
-95.505576 545.318464 224.000000
-96.207823 543.445805 224.000000
-96.910070 541.573147 224.000000
-97.612317 539.700489 224.000000
-98.314564 537.827830 224.000000
-99.016811 535.955172 224.000000
-99.719057 534.082514 224.000000
-100.421304 532.209855 224.000000
-101.123551 530.337197 224.000000
-101.825798 528.464539 224.000000
-102.528045 526.591880 224.000000
-103.230292 524.719222 224.000000
-103.932539 522.846563 224.000000
-104.634786 520.973905 224.000000
-105.337032 519.101247 224.000000
-106.039279 517.228588 224.000000
-106.741526 515.355930 224.000000
-107.443773 513.483272 224.000000
-108.146020 511.610613 224.000000
-108.848267 509.737955 224.000000
-109.550514 507.865297 224.000000
-110.252761 505.992638 224.000000
-110.955008 504.119980 224.000000
-111.657254 502.247322 224.000000
-112.359501 500.374663 224.000000
-113.061748 498.502005 224.000000
-113.763995 496.629346 224.000000
-114.466242 494.756688 224.000000
-115.168489 492.884030 224.000000
-115.870736 491.011371 224.000000
-116.572983 489.138713 224.000000
-117.275229 487.266055 224.000000
-117.977476 485.393396 224.000000
-118.679723 483.520738 224.000000
-120.000000 480.000000 224.000000
-121.324532 478.940374 225.059626
-122.649065 477.880748 226.119252
-123.973597 476.821122 227.178878
-125.298129 475.761496 228.238504
-126.622662 474.701871 229.298129
-127.947194 473.642245 230.357755
-129.271726 472.582619 231.417381
-130.596259 471.522993 232.477007
-131.920791 470.463367 233.536633
-133.245324 469.403741 234.596259
-134.569856 468.344115 235.655885
-135.894388 467.284489 236.715511
-137.218921 466.224863 237.775137
-138.543453 465.165238 238.834762
-139.867985 464.105612 239.894388
-141.192518 463.045986 240.954014
-142.517050 461.986360 242.013640
-143.841582 460.926734 243.073266
-145.166115 459.867108 244.132892
-146.490647 458.807482 245.192518
-147.815179 457.747856 246.252144
-149.139712 456.688231 247.311769
-150.464244 455.628605 248.371395
-151.788777 454.568979 249.431021
-153.113309 453.509353 250.490647
-154.437841 452.449727 251.550273
-155.762374 451.390101 252.609899
-157.086906 450.330475 253.669525
-158.411438 449.270849 254.729151
-160.000000 448.000000 256.000000
-161.994399 448.149580 256.000000
-163.988797 448.299160 256.000000
-165.983196 448.448740 256.000000
-167.977594 448.598320 256.000000
-169.971993 448.747899 256.000000
-171.966392 448.897479 256.000000
-173.960790 449.047059 256.000000
-175.955189 449.196639 256.000000
-177.949588 449.346219 256.000000
-179.943986 449.495799 256.000000
-181.938385 449.645379 256.000000
-183.932783 449.794959 256.000000
-185.927182 449.944539 256.000000
-187.921581 450.094119 256.000000
-189.915979 450.243698 256.000000
-191.910378 450.393278 256.000000
-193.904777 450.542858 256.000000
-195.899175 450.692438 256.000000
-197.893574 450.842018 256.000000
-199.887972 450.991598 256.000000
-201.882371 451.141178 256.000000
-203.876770 451.290758 256.000000
-205.871168 451.440338 256.000000
-207.865567 451.589918 256.000000
-209.859965 451.739497 256.000000
-211.854364 451.889077 256.000000
-213.848763 452.038657 256.000000
-215.843161 452.188237 256.000000
-217.837560 452.337817 256.000000
-219.831959 452.487397 256.000000
-221.826357 452.636977 256.000000
-223.820756 452.786557 256.000000
-225.815154 452.936137 256.000000
-227.809553 453.085716 256.000000
-229.803952 453.235296 256.000000
-231.798350 453.384876 256.000000
-233.792749 453.534456 256.000000
-235.787148 453.684036 256.000000
-237.781546 453.833616 256.000000
-239.775945 453.983196 256.000000
-241.770343 454.132776 256.000000
-243.764742 454.282356 256.000000
-245.759141 454.431936 256.000000
-247.753539 454.581515 256.000000
-249.747938 454.731095 256.000000
-251.742337 454.880675 256.000000
-253.736735 455.030255 256.000000
-255.731134 455.179835 256.000000
-257.725532 455.329415 256.000000
-259.719931 455.478995 256.000000
-261.714330 455.628575 256.000000
-263.708728 455.778155 256.000000
-265.703127 455.927735 256.000000
-267.697525 456.077314 256.000000
-269.691924 456.226894 256.000000
-271.686323 456.376474 256.000000
-273.680721 456.526054 256.000000
-275.675120 456.675634 256.000000
-277.669519 456.825214 256.000000
-279.663917 456.974794 256.000000
-281.658316 457.124374 256.000000
-283.652714 457.273954 256.000000
-285.647113 457.423533 256.000000
-287.641512 457.573113 256.000000
-289.635910 457.722693 256.000000
-291.630309 457.872273 256.000000
-293.624708 458.021853 256.000000
-295.619106 458.171433 256.000000
-297.613505 458.321013 256.000000
-299.607903 458.470593 256.000000
-301.602302 458.620173 256.000000
-303.596701 458.769753 256.000000
-305.591099 458.919332 256.000000
-307.585498 459.068912 256.000000
-309.579896 459.218492 256.000000
-311.574295 459.368072 256.000000
-313.568694 459.517652 256.000000
-315.563092 459.667232 256.000000
-317.557491 459.816812 256.000000
-319.551890 459.966392 256.000000
-321.546288 460.115972 256.000000
-323.540687 460.265552 256.000000
-325.535085 460.415131 256.000000
-327.529484 460.564711 256.000000
-329.523883 460.714291 256.000000
-331.518281 460.863871 256.000000
-333.512680 461.013451 256.000000
-335.507079 461.163031 256.000000
-337.501477 461.312611 256.000000
-339.495876 461.462191 256.000000
-341.490274 461.611771 256.000000
-343.484673 461.761350 256.000000
-345.479072 461.910930 256.000000
-347.473470 462.060510 256.000000
-349.467869 462.210090 256.000000
-351.462267 462.359670 256.000000
-353.456666 462.509250 256.000000
-355.451065 462.658830 256.000000
-357.445463 462.808410 256.000000
-359.439862 462.957990 256.000000
-361.434261 463.107570 256.000000
-363.428659 463.257149 256.000000
-365.423058 463.406729 256.000000
-367.417456 463.556309 256.000000
-369.411855 463.705889 256.000000
-371.406254 463.855469 256.000000
-373.400652 464.005049 256.000000
-375.395051 464.154629 256.000000
-377.389450 464.304209 256.000000
-379.383848 464.453789 256.000000
-381.378247 464.603369 256.000000
-383.372645 464.752948 256.000000
-385.367044 464.902528 256.000000
-387.361443 465.052108 256.000000
-389.355841 465.201688 256.000000
-391.350240 465.351268 256.000000
-393.344639 465.500848 256.000000
-395.339037 465.650428 256.000000
-397.333436 465.800008 256.000000
-399.327834 465.949588 256.000000
-401.322233 466.099167 256.000000
-403.316632 466.248747 256.000000
-405.311030 466.398327 256.000000
-407.305429 466.547907 256.000000
-409.299827 466.697487 256.000000
-411.294226 466.847067 256.000000
-413.288625 466.996647 256.000000
-415.283023 467.146227 256.000000
-417.277422 467.295807 256.000000
-419.271821 467.445387 256.000000
-421.266219 467.594966 256.000000
-423.260618 467.744546 256.000000
-425.255016 467.894126 256.000000
-427.249415 468.043706 256.000000
-429.243814 468.193286 256.000000
-431.238212 468.342866 256.000000
-433.232611 468.492446 256.000000
-435.227010 468.642026 256.000000
-437.221408 468.791606 256.000000
-439.215807 468.941186 256.000000
-441.210205 469.090765 256.000000
-443.204604 469.240345 256.000000
-445.199003 469.389925 256.000000
-447.193401 469.539505 256.000000
-449.187800 469.689085 256.000000
-451.182198 469.838665 256.000000
-453.176597 469.988245 256.000000
-455.170996 470.137825 256.000000
-457.165394 470.287405 256.000000
-459.159793 470.436984 256.000000
-461.154192 470.586564 256.000000
-463.148590 470.736144 256.000000
-465.142989 470.885724 256.000000
-467.137387 471.035304 256.000000
-469.131786 471.184884 256.000000
-471.126185 471.334464 256.000000
-473.120583 471.484044 256.000000
-475.114982 471.633624 256.000000
-477.109381 471.783204 256.000000
-480.000000 472.000000 256.000000
-482.000000 472.000000 256.000000
-484.000000 472.000000 256.000000
-486.000000 472.000000 256.000000
-488.000000 472.000000 256.000000
-490.000000 472.000000 256.000000
-492.000000 472.000000 256.000000
-496.000000 472.000000 256.000000
-497.886535 472.188654 255.363294
-499.773071 472.377307 254.726589
-501.659606 472.565961 254.089883
-503.546141 472.754614 253.453177
-505.432677 472.943268 252.816472
-507.319212 473.131921 252.179766
-509.205748 473.320575 251.543060
-511.092283 473.509228 250.906354
-512.978818 473.697882 250.269649
-514.865354 473.886535 249.632943
-516.751889 474.075189 248.996237
-518.638424 474.263842 248.359532
-520.524960 474.452496 247.722826
-522.411495 474.641150 247.086120
-524.298031 474.829803 246.449415
-526.184566 475.018457 245.812709
-528.071101 475.207110 245.176003
-529.957637 475.395764 244.539298
-531.844172 475.584417 243.902592
-533.730707 475.773071 243.265886
-535.617243 475.961724 242.629181
-537.503778 476.150378 241.992475
-539.390314 476.339031 241.355769
-541.276849 476.527685 240.719063
-543.163384 476.716338 240.082358
-545.049920 476.904992 239.445652
-546.936455 477.093646 238.808946
-548.822990 477.282299 238.172241
-550.709526 477.470953 237.535535
-552.596061 477.659606 236.898829
-554.482597 477.848260 236.262124
-556.369132 478.036913 235.625418
-558.255667 478.225567 234.988712
-560.142203 478.414220 234.352007
-562.028738 478.602874 233.715301
-563.915273 478.791527 233.078595
-565.801809 478.980181 232.441890
-567.688344 479.168834 231.805184
-569.574880 479.357488 231.168478
-571.461415 479.546141 230.531772
-573.347950 479.734795 229.895067
-575.234486 479.923449 229.258361
-577.121021 480.112102 228.621655
-579.007556 480.300756 227.984950
-580.894092 480.489409 227.348244
-582.780627 480.678063 226.711538
-584.667162 480.866716 226.074833
-586.553698 481.055370 225.438127
-588.440233 481.244023 224.801421
-590.326769 481.432677 224.164716
-592.213304 481.621330 223.528010
-594.099839 481.809984 222.891304
-595.986375 481.998637 222.254599
-597.872910 482.187291 221.617893
-599.759445 482.375945 220.981187
-601.645981 482.564598 220.344481
-603.532516 482.753252 219.707776
-605.419052 482.941905 219.071070
-607.305587 483.130559 218.434364
-609.192122 483.319212 217.797659
-611.078658 483.507866 217.160953
-612.965193 483.696519 216.524247
-614.851728 483.885173 215.887542
-616.738264 484.073826 215.250836
-618.624799 484.262480 214.614130
-620.511335 484.451133 213.977425
-622.397870 484.639787 213.340719
-624.284405 484.828441 212.704013
-626.170941 485.017094 212.067308
-628.057476 485.205748 211.430602
-629.944011 485.394401 210.793896
-631.830547 485.583055 210.157190
-633.717082 485.771708 209.520485
-635.603618 485.960362 208.883779
-637.490153 486.149015 208.247073
-639.376688 486.337669 207.610368
-641.263224 486.526322 206.973662
-643.149759 486.714976 206.336956
-645.036294 486.903629 205.700251
-646.922830 487.092283 205.063545
-648.809365 487.280937 204.426839
-650.695901 487.469590 203.790134
-652.582436 487.658244 203.153428
-654.468971 487.846897 202.516722
-656.355507 488.035551 201.880017
-658.242042 488.224204 201.243311
-660.128577 488.412858 200.606605
-662.015113 488.601511 199.969899
-663.901648 488.790165 199.333194
-665.788183 488.978818 198.696488
-667.674719 489.167472 198.059782
-669.561254 489.356125 197.423077
-671.447790 489.544779 196.786371
-673.334325 489.733432 196.149665
-675.220860 489.922086 195.512960
-677.107396 490.110740 194.876254
-678.993931 490.299393 194.239548
-680.880466 490.488047 193.602843
-682.767002 490.676700 192.966137
-684.653537 490.865354 192.329431
-686.540073 491.054007 191.692726
-688.426608 491.242661 191.056020
-690.313143 491.431314 190.419314
-692.199679 491.619968 189.782608
-694.086214 491.808621 189.145903
-695.972749 491.997275 188.509197
-697.859285 492.185928 187.872491
-699.745820 492.374582 187.235786
-701.632356 492.563236 186.599080
-703.518891 492.751889 185.962374
-705.405426 492.940543 185.325669
-707.291962 493.129196 184.688963
-709.178497 493.317850 184.052257
-711.065032 493.506503 183.415552
-712.951568 493.695157 182.778846
-714.838103 493.883810 182.142140
-716.724639 494.072464 181.505434
-718.611174 494.261117 180.868729
-720.497709 494.449771 180.232023
-722.384245 494.638424 179.595317
-724.270780 494.827078 178.958612
-726.157315 495.015732 178.321906
-728.043851 495.204385 177.685200
-729.930386 495.393039 177.048495
-731.816921 495.581692 176.411789
-733.703457 495.770346 175.775083
-735.589992 495.958999 175.138378
-737.476528 496.147653 174.501672
-739.363063 496.336306 173.864966
-741.249598 496.524960 173.228261
-743.136134 496.713613 172.591555
-745.022669 496.902267 171.954849
-746.909204 497.090920 171.318143
-748.795740 497.279574 170.681438
-750.682275 497.468228 170.044732
-752.568811 497.656881 169.408026
-754.455346 497.845535 168.771321
-756.341881 498.034188 168.134615
-758.228417 498.222842 167.497909
-760.114952 498.411495 166.861204
-762.001487 498.600149 166.224498
-763.888023 498.788802 165.587792
-765.774558 498.977456 164.951087
-767.661094 499.166109 164.314381
-769.547629 499.354763 163.677675
-771.434164 499.543416 163.040970
-773.320700 499.732070 162.404264
-775.207235 499.920724 161.767558
-777.093770 500.109377 161.130852
-778.980306 500.298031 160.494147
-780.866841 500.486684 159.857441
-782.753377 500.675338 159.220735
-784.639912 500.863991 158.584030
-786.526447 501.052645 157.947324
-788.412983 501.241298 157.310618
-790.299518 501.429952 156.673913
-792.186053 501.618605 156.037207
-794.072589 501.807259 155.400501
-795.959124 501.995912 154.763796
-797.845660 502.184566 154.127090
-799.732195 502.373219 153.490384
-801.618730 502.561873 152.853679
-803.505266 502.750527 152.216973
-805.391801 502.939180 151.580267
-807.278336 503.127834 150.943561
-809.164872 503.316487 150.306856
-811.051407 503.505141 149.670150
-812.937942 503.693794 149.033444
-816.000000 504.000000 148.000000
-817.774469 504.920927 148.056154
-819.548938 505.841854 148.112308
-821.323407 506.762781 148.168462
-823.097876 507.683708 148.224616
-824.872345 508.604635 148.280770
-826.646814 509.525562 148.336924
-828.421283 510.446489 148.393079
-830.195752 511.367416 148.449233
-831.970221 512.288343 148.505387
-833.744690 513.209270 148.561541
-835.519159 514.130196 148.617695
-837.293628 515.051123 148.673849
-839.068097 515.972050 148.730003
-840.842566 516.892977 148.786157
-842.617035 517.813904 148.842311
-844.391504 518.734831 148.898465
-846.165973 519.655758 148.954619
-847.940442 520.576685 149.010773
-849.714911 521.497612 149.066928
-851.489380 522.418539 149.123082
-853.263849 523.339466 149.179236
-855.038318 524.260393 149.235390
-856.812787 525.181320 149.291544
-858.587256 526.102247 149.347698
-860.361725 527.023174 149.403852
-862.136194 527.944101 149.460006
-863.910663 528.865028 149.516160
-865.685132 529.785955 149.572314
-867.459601 530.706882 149.628468
-869.234070 531.627809 149.684622
-871.008539 532.548736 149.740777
-872.783008 533.469663 149.796931
-874.557477 534.390589 149.853085
-876.331946 535.311516 149.909239
-878.106415 536.232443 149.965393
-879.880884 537.153370 150.021547
-881.655353 538.074297 150.077701
-883.429822 538.995224 150.133855
-885.204291 539.916151 150.190009
-886.978760 540.837078 150.246163
-888.753229 541.758005 150.302317
-890.527698 542.678932 150.358471
-892.302167 543.599859 150.414626
-894.076636 544.520786 150.470780
-895.851105 545.441713 150.526934
-897.625574 546.362640 150.583088
-899.400043 547.283567 150.639242
-901.174512 548.204494 150.695396
-902.948981 549.125421 150.751550
-904.723450 550.046348 150.807704
-906.497919 550.967275 150.863858
-908.272388 551.888202 150.920012
-910.046857 552.809129 150.976166
-911.821326 553.730056 151.032320
-913.595796 554.650982 151.088475
-915.370265 555.571909 151.144629
-917.144734 556.492836 151.200783
-918.919203 557.413763 151.256937
-920.693672 558.334690 151.313091
-922.468141 559.255617 151.369245
-924.242610 560.176544 151.425399
-926.017079 561.097471 151.481553
-927.791548 562.018398 151.537707
-929.566017 562.939325 151.593861
-931.340486 563.860252 151.650015
-933.114955 564.781179 151.706169
-934.889424 565.702106 151.762324
-936.663893 566.623033 151.818478
-938.438362 567.543960 151.874632
-940.212831 568.464887 151.930786
-941.987300 569.385814 151.986940
-943.761769 570.306741 152.043094
-945.536238 571.227668 152.099248
-947.310707 572.148595 152.155402
-949.085176 573.069522 152.211556
-950.859645 573.990449 152.267710
-952.634114 574.911375 152.323864
-954.408583 575.832302 152.380018
-956.183052 576.753229 152.436173
-957.957521 577.674156 152.492327
-959.731990 578.595083 152.548481
-961.506459 579.516010 152.604635
-963.280928 580.436937 152.660789
-965.055397 581.357864 152.716943
-966.829866 582.278791 152.773097
-968.604335 583.199718 152.829251
-970.378804 584.120645 152.885405
-972.153273 585.041572 152.941559
-973.927742 585.962499 152.997713
-975.702211 586.883426 153.053867
-977.476680 587.804353 153.110022
-979.251149 588.725280 153.166176
-981.025618 589.646207 153.222330
-982.800087 590.567134 153.278484
-984.574556 591.488061 153.334638
-986.349025 592.408988 153.390792
-988.123494 593.329915 153.446946
-989.897963 594.250842 153.503100
-991.672432 595.171768 153.559254
-993.446901 596.092695 153.615408
-995.221370 597.013622 153.671562
-996.995839 597.934549 153.727716
-998.770308 598.855476 153.783871
-1000.544777 599.776403 153.840025
-1002.319246 600.697330 153.896179
-1004.093715 601.618257 153.952333
-1005.868184 602.539184 154.008487
-1007.642653 603.460111 154.064641
-1009.417122 604.381038 154.120795
-1011.191591 605.301965 154.176949
-1012.966060 606.222892 154.233103
-1014.740529 607.143819 154.289257
-1016.514998 608.064746 154.345411
-1018.289467 608.985673 154.401565
-1020.063936 609.906600 154.457719
-1021.838405 610.827527 154.513874
-1023.612874 611.748454 154.570028
-1025.387343 612.669381 154.626182
-1027.161812 613.590308 154.682336
-1028.936281 614.511234 154.738490
-1030.710750 615.432161 154.794644
-1032.485219 616.353088 154.850798
-1034.259688 617.274015 154.906952
-1036.034157 618.194942 154.963106
-1037.808626 619.115869 155.019260
-1039.583095 620.036796 155.075414
-1041.357564 620.957723 155.131568
-1043.132033 621.878650 155.187723
-1044.906502 622.799577 155.243877
-1046.680971 623.720504 155.300031
-1048.455440 624.641431 155.356185
-1050.229909 625.562358 155.412339
-1052.004378 626.483285 155.468493
-1053.778847 627.404212 155.524647
-1055.553316 628.325139 155.580801
-1057.327785 629.246066 155.636955
-1059.102254 630.166993 155.693109
-1060.876723 631.087920 155.749263
-1062.651192 632.008847 155.805417
-1064.425661 632.929774 155.861572
-1066.200130 633.850701 155.917726
-1067.974599 634.771627 155.973880
-1069.749068 635.692554 156.030034
-1071.523537 636.613481 156.086188
-1073.298006 637.534408 156.142342
-1075.072475 638.455335 156.198496
-1076.846944 639.376262 156.254650
-1078.621413 640.297189 156.310804
-1080.395882 641.218116 156.366958
-1082.170351 642.139043 156.423112
-1083.944820 643.059970 156.479266
-1085.719289 643.980897 156.535421
-1087.493758 644.901824 156.591575
-1089.268227 645.822751 156.647729
-1091.042696 646.743678 156.703883
-1092.817165 647.664605 156.760037
-1094.591634 648.585532 156.816191
-1096.366103 649.506459 156.872345
-1098.140572 650.427386 156.928499
-1099.915041 651.348313 156.984653
-1101.689510 652.269240 157.040807
-1103.463979 653.190167 157.096961
-1105.238448 654.111094 157.153115
-1107.012917 655.032020 157.209270
-1108.787387 655.952947 157.265424
-1110.561856 656.873874 157.321578
-1112.336325 657.794801 157.377732
-1114.110794 658.715728 157.433886
-1115.885263 659.636655 157.490040
-1117.659732 660.557582 157.546194
-1119.434201 661.478509 157.602348
-1121.208670 662.399436 157.658502
-1122.983139 663.320363 157.714656
-1124.757608 664.241290 157.770810
-1126.532077 665.162217 157.826964
-1128.306546 666.083144 157.883119
-1130.081015 667.004071 157.939273
-1131.855484 667.924998 157.995427
-1133.629953 668.845925 158.051581
-1135.404422 669.766852 158.107735
-1137.178891 670.687779 158.163889
-1138.953360 671.608706 158.220043
-1140.727829 672.529633 158.276197
-1142.502298 673.450560 158.332351
-1144.276767 674.371487 158.388505
-1146.051236 675.292413 158.444659
-1147.825705 676.213340 158.500813
-1149.600174 677.134267 158.556968
-1151.374643 678.055194 158.613122
-1153.149112 678.976121 158.669276
-1154.923581 679.897048 158.725430
-1156.698050 680.817975 158.781584
-1158.472519 681.738902 158.837738
-1160.246988 682.659829 158.893892
-1162.021457 683.580756 158.950046
-1163.795926 684.501683 159.006200
-1165.570395 685.422610 159.062354
-1167.344864 686.343537 159.118508
-1169.119333 687.264464 159.174662
-1170.893802 688.185391 159.230817
-1172.668271 689.106318 159.286971
-1174.442740 690.027245 159.343125
-1176.217209 690.948172 159.399279
-1177.991678 691.869099 159.455433
-1179.766147 692.790026 159.511587
-1181.540616 693.710953 159.567741
-1183.315085 694.631879 159.623895
-1185.089554 695.552806 159.680049
-1186.864023 696.473733 159.736203
-1188.638492 697.394660 159.792357
-1190.412961 698.315587 159.848511
-1192.187430 699.236514 159.904666
-1193.961899 700.157441 159.960820
-1195.736368 701.078368 160.016974
-1197.510837 701.999295 160.073128
-1199.285306 702.920222 160.129282
-1201.059775 703.841149 160.185436
-1202.834244 704.762076 160.241590
-1204.608713 705.683003 160.297744
-1206.383182 706.603930 160.353898
-1208.157651 707.524857 160.410052
-1209.932120 708.445784 160.466206
-1211.706589 709.366711 160.522360
-1213.481058 710.287638 160.578514
-1215.255527 711.208565 160.634669
-1217.029996 712.129492 160.690823
-1218.804465 713.050419 160.746977
-1220.578934 713.971346 160.803131
-1222.353403 714.892272 160.859285
-1224.127872 715.813199 160.915439
-1225.902341 716.734126 160.971593
-1227.676810 717.655053 161.027747
-1229.451279 718.575980 161.083901
-1231.225748 719.496907 161.140055
-1233.000217 720.417834 161.196209
-1234.774686 721.338761 161.252363
-1236.549155 722.259688 161.308518
-1238.323624 723.180615 161.364672
-1240.098093 724.101542 161.420826
-1241.872562 725.022469 161.476980
-1243.647031 725.943396 161.533134
-1245.421500 726.864323 161.589288
-1247.195969 727.785250 161.645442
-1248.970438 728.706177 161.701596
-1250.744907 729.627104 161.757750
-1252.519376 730.548031 161.813904
-1254.293845 731.468958 161.870058
-1256.068314 732.389885 161.926212
-1257.842783 733.310812 161.982367
-1259.617252 734.231739 162.038521
-1261.391721 735.152665 162.094675
-1263.166190 736.073592 162.150829
-1264.940659 736.994519 162.206983
-1266.715128 737.915446 162.263137
-1268.489597 738.836373 162.319291
-1270.264066 739.757300 162.375445
-1272.038535 740.678227 162.431599
-1273.813004 741.599154 162.487753
-1275.587473 742.520081 162.543907
-1277.361942 743.441008 162.600061
-1279.136411 744.361935 162.656216
-1280.910880 745.282862 162.712370
-1282.685349 746.203789 162.768524
-1284.459818 747.124716 162.824678
-1286.234287 748.045643 162.880832
-1288.008756 748.966570 162.936986
-1289.783225 749.887497 162.993140
-1291.557694 750.808424 163.049294
-1293.332163 751.729351 163.105448
-1295.106632 752.650278 163.161602
-1296.881101 753.571205 163.217756
-1298.655570 754.492132 163.273910
-1300.430039 755.413058 163.330065
-1302.204508 756.333985 163.386219
-1303.978978 757.254912 163.442373
-1305.753447 758.175839 163.498527
-1307.527916 759.096766 163.554681
-1309.302385 760.017693 163.610835
-1311.076854 760.938620 163.666989
-1312.851323 761.859547 163.723143
-1314.625792 762.780474 163.779297
-1316.400261 763.701401 163.835451
-1318.174730 764.622328 163.891605
-1319.949199 765.543255 163.947759
-1321.723668 766.464182 164.003914
-1323.498137 767.385109 164.060068
-1325.272606 768.306036 164.116222
-1327.047075 769.226963 164.172376
-1328.821544 770.147890 164.228530
-1330.596013 771.068817 164.284684
-1332.370482 771.989744 164.340838
-1334.144951 772.910671 164.396992
-1335.919420 773.831598 164.453146
-1337.693889 774.752525 164.509300
-1339.468358 775.673451 164.565454
-1341.242827 776.594378 164.621608
-1343.017296 777.515305 164.677763
-1344.791765 778.436232 164.733917
-1346.566234 779.357159 164.790071
-1348.340703 780.278086 164.846225
-1350.115172 781.199013 164.902379
-1351.889641 782.119940 164.958533
-1353.664110 783.040867 165.014687
-1355.438579 783.961794 165.070841
-1357.213048 784.882721 165.126995
-1358.987517 785.803648 165.183149
-1360.761986 786.724575 165.239303
-1362.536455 787.645502 165.295457
-1364.310924 788.566429 165.351612
-1366.085393 789.487356 165.407766
-1367.859862 790.408283 165.463920
-1369.634331 791.329210 165.520074
-1371.408800 792.250137 165.576228
-1373.183269 793.171064 165.632382
-1374.957738 794.091991 165.688536
-1376.732207 795.012917 165.744690
-1378.506676 795.933844 165.800844
-1380.281145 796.854771 165.856998
-1382.055614 797.775698 165.913152
-1383.830083 798.696625 165.969306
-1385.604552 799.617552 166.025461
-1387.379021 800.538479 166.081615
-1389.153490 801.459406 166.137769
-1390.927959 802.380333 166.193923
-1392.702428 803.301260 166.250077
-1394.476897 804.222187 166.306231
-1396.251366 805.143114 166.362385
-1398.025835 806.064041 166.418539
-1399.800304 806.984968 166.474693
-1401.574773 807.905895 166.530847
-1403.349242 808.826822 166.587001
-1405.123711 809.747749 166.643155
-1406.898180 810.668676 166.699309
-1408.672649 811.589603 166.755464
-1410.447118 812.510530 166.811618
-1412.221587 813.431457 166.867772
-1413.996056 814.352384 166.923926
-1415.770525 815.273310 166.980080
-1417.544994 816.194237 167.036234
-1419.319463 817.115164 167.092388
-1421.093932 818.036091 167.148542
-1422.868401 818.957018 167.204696
-1424.642870 819.877945 167.260850
-1426.417339 820.798872 167.317004
-1428.191808 821.719799 167.373158
-1429.966277 822.640726 167.429313
-1431.740746 823.561653 167.485467
-1433.515215 824.482580 167.541621
-1435.289684 825.403507 167.597775
-1437.064153 826.324434 167.653929
-1438.838622 827.245361 167.710083
-1440.613091 828.166288 167.766237
-1442.387560 829.087215 167.822391
-1444.162029 830.008142 167.878545
-1445.936498 830.929069 167.934699
-1448.000000 832.000000 168.000000
-1449.987879 832.000000 167.780142
-1451.975758 832.000000 167.560285
-1453.963637 832.000000 167.340427
-1455.951516 832.000000 167.120570
-1457.939395 832.000000 166.900712
-1459.927274 832.000000 166.680855
-1461.915153 832.000000 166.460997
-1463.903031 832.000000 166.241139
-1465.890910 832.000000 166.021282
-1467.878789 832.000000 165.801424
-1469.866668 832.000000 165.581567
-1471.854547 832.000000 165.361709
-1473.842426 832.000000 165.141851
-1475.830305 832.000000 164.921994
-1477.818184 832.000000 164.702136
-1479.806063 832.000000 164.482279
-1481.793942 832.000000 164.262421
-1483.781821 832.000000 164.042564
-1485.769700 832.000000 163.822706
-1487.757579 832.000000 163.602848
-1489.745458 832.000000 163.382991
-1491.733336 832.000000 163.163133
-1493.721215 832.000000 162.943276
-1495.709094 832.000000 162.723418
-1497.696973 832.000000 162.503561
-1499.684852 832.000000 162.283703
-1501.672731 832.000000 162.063845
-1503.660610 832.000000 161.843988
-1505.648489 832.000000 161.624130
-1507.636368 832.000000 161.404273
-1509.624247 832.000000 161.184415
-1511.612126 832.000000 160.964558
-1513.600005 832.000000 160.744700
-1515.587884 832.000000 160.524842
-1517.575763 832.000000 160.304985
-1519.563642 832.000000 160.085127
-1521.551520 832.000000 159.865270
-1523.539399 832.000000 159.645412
-1525.527278 832.000000 159.425554
-1527.515157 832.000000 159.205697
-1529.503036 832.000000 158.985839
-1531.490915 832.000000 158.765982
-1533.478794 832.000000 158.546124
-1535.466673 832.000000 158.326267
-1537.454552 832.000000 158.106409
-1539.442431 832.000000 157.886551
-1541.430310 832.000000 157.666694
-1543.418189 832.000000 157.446836
-1545.406068 832.000000 157.226979
-1547.393947 832.000000 157.007121
-1549.381825 832.000000 156.787264
-1551.369704 832.000000 156.567406
-1553.357583 832.000000 156.347548
-1555.345462 832.000000 156.127691
-1557.333341 832.000000 155.907833
-1559.321220 832.000000 155.687976
-1561.309099 832.000000 155.468118
-1563.296978 832.000000 155.248260
-1565.284857 832.000000 155.028403
-1567.272736 832.000000 154.808545
-1569.260615 832.000000 154.588688
-1571.248494 832.000000 154.368830
-1573.236373 832.000000 154.148973
-1575.224252 832.000000 153.929115
-1577.212131 832.000000 153.709257
-1579.200009 832.000000 153.489400
-1581.187888 832.000000 153.269542
-1583.175767 832.000000 153.049685
-1585.163646 832.000000 152.829827
-1587.151525 832.000000 152.609970
-1589.139404 832.000000 152.390112
-1591.127283 832.000000 152.170254
-1593.115162 832.000000 151.950397
-1595.103041 832.000000 151.730539
-1597.090920 832.000000 151.510682
-1599.078799 832.000000 151.290824
-1601.066678 832.000000 151.070967
-1603.054557 832.000000 150.851109
-1605.042436 832.000000 150.631251
-1607.030315 832.000000 150.411394
-1609.018193 832.000000 150.191536
-1611.006072 832.000000 149.971679
-1612.993951 832.000000 149.751821
-1614.981830 832.000000 149.531963
-1616.969709 832.000000 149.312106
-1618.957588 832.000000 149.092248
-1620.945467 832.000000 148.872391
-1622.933346 832.000000 148.652533
-1624.921225 832.000000 148.432676
-1626.909104 832.000000 148.212818
-1628.896983 832.000000 147.992960
-1630.884862 832.000000 147.773103
-1632.872741 832.000000 147.553245
-1634.860620 832.000000 147.333388
-1636.848498 832.000000 147.113530
-1638.836377 832.000000 146.893673
-1640.824256 832.000000 146.673815
-1642.812135 832.000000 146.453957
-1644.800014 832.000000 146.234100
-1646.787893 832.000000 146.014242
-1648.775772 832.000000 145.794385
-1650.763651 832.000000 145.574527
-1652.751530 832.000000 145.354670
-1654.739409 832.000000 145.134812
-1656.727288 832.000000 144.914954
-1658.715167 832.000000 144.695097
-1660.703046 832.000000 144.475239
-1662.690925 832.000000 144.255382
-1664.678804 832.000000 144.035524
-1666.666682 832.000000 143.815666
-1668.654561 832.000000 143.595809
-1670.642440 832.000000 143.375951
-1672.630319 832.000000 143.156094
-1674.618198 832.000000 142.936236
-1676.606077 832.000000 142.716379
-1678.593956 832.000000 142.496521
-1680.581835 832.000000 142.276663
-1682.569714 832.000000 142.056806
-1684.557593 832.000000 141.836948
-1686.545472 832.000000 141.617091
-1688.533351 832.000000 141.397233
-1690.521230 832.000000 141.177376
-1692.509109 832.000000 140.957518
-1694.496987 832.000000 140.737660
-1696.484866 832.000000 140.517803
-1698.472745 832.000000 140.297945
-1700.460624 832.000000 140.078088
-1702.448503 832.000000 139.858230
-1704.436382 832.000000 139.638372
-1706.424261 832.000000 139.418515
-1708.412140 832.000000 139.198657
-1710.400019 832.000000 138.978800
-1712.387898 832.000000 138.758942
-1714.375777 832.000000 138.539085
-1716.363656 832.000000 138.319227
-1718.351535 832.000000 138.099369
-1720.339414 832.000000 137.879512
-1722.327293 832.000000 137.659654
-1724.315171 832.000000 137.439797
-1726.303050 832.000000 137.219939
-1728.290929 832.000000 137.000082
-1730.278808 832.000000 136.780224
-1732.266687 832.000000 136.560366
-1734.254566 832.000000 136.340509
-1736.242445 832.000000 136.120651
-1738.230324 832.000000 135.900794
-1740.218203 832.000000 135.680936
-1742.206082 832.000000 135.461079
-1744.193961 832.000000 135.241221
-1746.181840 832.000000 135.021363
-1748.169719 832.000000 134.801506
-1750.157598 832.000000 134.581648
-1752.145476 832.000000 134.361791
-1754.133355 832.000000 134.141933
-1756.121234 832.000000 133.922075
-1758.109113 832.000000 133.702218
-1760.096992 832.000000 133.482360
-1762.084871 832.000000 133.262503
-1764.072750 832.000000 133.042645
-1766.060629 832.000000 132.822788
-1768.048508 832.000000 132.602930
-1770.036387 832.000000 132.383072
-1772.024266 832.000000 132.163215
-1774.012145 832.000000 131.943357
-1776.000024 832.000000 131.723500
-1777.987903 832.000000 131.503642
-1779.975782 832.000000 131.283785
-1781.963660 832.000000 131.063927
-1783.951539 832.000000 130.844069
-1785.939418 832.000000 130.624212
-1787.927297 832.000000 130.404354
-1789.915176 832.000000 130.184497
-1791.903055 832.000000 129.964639
-1793.890934 832.000000 129.744781
-1795.878813 832.000000 129.524924
-1797.866692 832.000000 129.305066
-1799.854571 832.000000 129.085209
-1801.842450 832.000000 128.865351
-1803.830329 832.000000 128.645494
-1805.818208 832.000000 128.425636
-1807.806087 832.000000 128.205778
-1809.793965 832.000000 127.985921
-1811.781844 832.000000 127.766063
-1813.769723 832.000000 127.546206
-1815.757602 832.000000 127.326348
-1817.745481 832.000000 127.106491
-1819.733360 832.000000 126.886633
-1821.721239 832.000000 126.666775
-1823.709118 832.000000 126.446918
-1825.696997 832.000000 126.227060
-1827.684876 832.000000 126.007203
-1829.672755 832.000000 125.787345
-1831.660634 832.000000 125.567488
-1833.648513 832.000000 125.347630
-1835.636392 832.000000 125.127772
-1837.624271 832.000000 124.907915
-1839.612149 832.000000 124.688057
-1841.600028 832.000000 124.468200
-1843.587907 832.000000 124.248342
-1845.575786 832.000000 124.028484
-1847.563665 832.000000 123.808627
-1849.551544 832.000000 123.588769
-1851.539423 832.000000 123.368912
-1853.527302 832.000000 123.149054
-1855.515181 832.000000 122.929197
-1857.503060 832.000000 122.709339
-1859.490939 832.000000 122.489481
-1861.478818 832.000000 122.269624
-1863.466697 832.000000 122.049766
-1865.454576 832.000000 121.829909
-1867.442455 832.000000 121.610051
-1869.430333 832.000000 121.390194
-1871.418212 832.000000 121.170336
-1873.406091 832.000000 120.950478
-1875.393970 832.000000 120.730621
-1877.381849 832.000000 120.510763
-1879.369728 832.000000 120.290906
-1881.357607 832.000000 120.071048
-1883.345486 832.000000 119.851190
-1885.333365 832.000000 119.631333
-1887.321244 832.000000 119.411475
-1889.309123 832.000000 119.191618
-1891.297002 832.000000 118.971760
-1893.284881 832.000000 118.751903
-1895.272760 832.000000 118.532045
-1897.260638 832.000000 118.312187
-1899.248517 832.000000 118.092330
-1901.236396 832.000000 117.872472
-1903.224275 832.000000 117.652615
-1905.212154 832.000000 117.432757
-1907.200033 832.000000 117.212900
-1909.187912 832.000000 116.993042
-1911.175791 832.000000 116.773184
-1913.163670 832.000000 116.553327
-1915.151549 832.000000 116.333469
-1917.139428 832.000000 116.113612
-1919.127307 832.000000 115.893754
-1921.115186 832.000000 115.673897
-1923.103065 832.000000 115.454039
-1925.090944 832.000000 115.234181
-1927.078822 832.000000 115.014324
-1929.066701 832.000000 114.794466
-1931.054580 832.000000 114.574609
-1933.042459 832.000000 114.354751
-1935.030338 832.000000 114.134893
-1937.018217 832.000000 113.915036
-1939.006096 832.000000 113.695178
-1940.993975 832.000000 113.475321
-1942.981854 832.000000 113.255463
-1944.969733 832.000000 113.035606
-1946.957612 832.000000 112.815748
-1948.945491 832.000000 112.595890
-1950.933370 832.000000 112.376033
-1952.921249 832.000000 112.156175
-1954.909127 832.000000 111.936318
-1956.897006 832.000000 111.716460
-1958.884885 832.000000 111.496603
-1960.872764 832.000000 111.276745
-1962.860643 832.000000 111.056887
-1964.848522 832.000000 110.837030
-1966.836401 832.000000 110.617172
-1968.824280 832.000000 110.397315
-1970.812159 832.000000 110.177457
-1972.800038 832.000000 109.957599
-1974.787917 832.000000 109.737742
-1976.775796 832.000000 109.517884
-1978.763675 832.000000 109.298027
-1980.751554 832.000000 109.078169
-1982.739433 832.000000 108.858312
-1984.727311 832.000000 108.638454
-1986.715190 832.000000 108.418596
-1988.703069 832.000000 108.198739
-1990.690948 832.000000 107.978881
-1992.678827 832.000000 107.759024
-1994.666706 832.000000 107.539166
-1996.654585 832.000000 107.319309
-1998.642464 832.000000 107.099451
-2000.630343 832.000000 106.879593
-2002.618222 832.000000 106.659736
-2004.606101 832.000000 106.439878
-2006.593980 832.000000 106.220021
-2008.581859 832.000000 106.000163
-2010.569738 832.000000 105.780306
-2012.557616 832.000000 105.560448
-2014.545495 832.000000 105.340590
-2016.533374 832.000000 105.120733
-2018.521253 832.000000 104.900875
-2020.509132 832.000000 104.681018
-2022.497011 832.000000 104.461160
-2024.484890 832.000000 104.241302
-2026.472769 832.000000 104.021445
-2028.460648 832.000000 103.801587
-2030.448527 832.000000 103.581730
-2032.436406 832.000000 103.361872
-2034.424285 832.000000 103.142015
-2036.412164 832.000000 102.922157
-2038.400043 832.000000 102.702299
-2040.387922 832.000000 102.482442
-2042.375800 832.000000 102.262584
-2044.363679 832.000000 102.042727
-2046.351558 832.000000 101.822869
-2048.339437 832.000000 101.603012
-2050.327316 832.000000 101.383154
-2052.315195 832.000000 101.163296
-2054.303074 832.000000 100.943439
-2056.290953 832.000000 100.723581
-2058.278832 832.000000 100.503724
-2060.266711 832.000000 100.283866
-2062.254590 832.000000 100.064009
-2064.242469 832.000000 99.844151
-2066.230348 832.000000 99.624293
-2068.218227 832.000000 99.404436
-2070.206106 832.000000 99.184578
-2072.193984 832.000000 98.964721
-2074.181863 832.000000 98.744863
-2076.169742 832.000000 98.525005
-2078.157621 832.000000 98.305148
-2080.145500 832.000000 98.085290
-2082.133379 832.000000 97.865433
-2084.121258 832.000000 97.645575
-2086.109137 832.000000 97.425718
-2088.097016 832.000000 97.205860
-2090.084895 832.000000 96.986002
-2092.072774 832.000000 96.766145
-2094.060653 832.000000 96.546287
-2096.048532 832.000000 96.326430
-2098.036411 832.000000 96.106572
-2100.024289 832.000000 95.886715
-2102.012168 832.000000 95.666857
-2104.000047 832.000000 95.446999
-2105.987926 832.000000 95.227142
-2107.975805 832.000000 95.007284
-2109.963684 832.000000 94.787427
-2111.951563 832.000000 94.567569
-2113.939442 832.000000 94.347711
-2115.927321 832.000000 94.127854
-2117.915200 832.000000 93.907996
-2119.903079 832.000000 93.688139
-2121.890958 832.000000 93.468281
-2123.878837 832.000000 93.248424
-2125.866716 832.000000 93.028566
-2127.854595 832.000000 92.808708
-2129.842473 832.000000 92.588851
-2131.830352 832.000000 92.368993
-2133.818231 832.000000 92.149136
-2135.806110 832.000000 91.929278
-2137.793989 832.000000 91.709421
-2139.781868 832.000000 91.489563
-2141.769747 832.000000 91.269705
-2143.757626 832.000000 91.049848
-2145.745505 832.000000 90.829990
-2147.733384 832.000000 90.610133
-2149.721263 832.000000 90.390275
-2151.709142 832.000000 90.170418
-2153.697021 832.000000 89.950560
-2155.684900 832.000000 89.730702
-2157.672778 832.000000 89.510845
-2159.660657 832.000000 89.290987
-2161.648536 832.000000 89.071130
-2163.636415 832.000000 88.851272
-2165.624294 832.000000 88.631414
-2167.612173 832.000000 88.411557
-2169.600052 832.000000 88.191699
-2171.587931 832.000000 87.971842
-2173.575810 832.000000 87.751984
-2175.563689 832.000000 87.532127
-2177.551568 832.000000 87.312269
-2179.539447 832.000000 87.092411
-2181.527326 832.000000 86.872554
-2183.515205 832.000000 86.652696
-2185.503084 832.000000 86.432839
-2187.490962 832.000000 86.212981
-2189.478841 832.000000 85.993124
-2191.466720 832.000000 85.773266
-2193.454599 832.000000 85.553408
-2195.442478 832.000000 85.333551
-2197.430357 832.000000 85.113693
-2199.418236 832.000000 84.893836
-2201.406115 832.000000 84.673978
-2203.393994 832.000000 84.454120
-2205.381873 832.000000 84.234263
-2207.369752 832.000000 84.014405
-2209.357631 832.000000 83.794548
-2211.345510 832.000000 83.574690
-2213.333389 832.000000 83.354833
-2215.321267 832.000000 83.134975
-2217.309146 832.000000 82.915117
-2219.297025 832.000000 82.695260
-2221.284904 832.000000 82.475402
-2223.272783 832.000000 82.255545
-2225.260662 832.000000 82.035687
-2227.248541 832.000000 81.815830
-2229.236420 832.000000 81.595972
-2231.224299 832.000000 81.376114
-2233.212178 832.000000 81.156257
-2235.200057 832.000000 80.936399
-2237.187936 832.000000 80.716542
-2239.175815 832.000000 80.496684
-2241.163694 832.000000 80.276827
-2243.151573 832.000000 80.056969
-2245.139451 832.000000 79.837111
-2247.127330 832.000000 79.617254
-2249.115209 832.000000 79.397396
-2251.103088 832.000000 79.177539
-2253.090967 832.000000 78.957681
-2255.078846 832.000000 78.737823
-2257.066725 832.000000 78.517966
-2259.054604 832.000000 78.298108
-2261.042483 832.000000 78.078251
-2263.030362 832.000000 77.858393
-2265.018241 832.000000 77.638536
-2267.006120 832.000000 77.418678
-2268.993999 832.000000 77.198820
-2270.981878 832.000000 76.978963
-2272.969756 832.000000 76.759105
-2274.957635 832.000000 76.539248
-2276.945514 832.000000 76.319390
-2278.933393 832.000000 76.099533
-2280.921272 832.000000 75.879675
-2282.909151 832.000000 75.659817
-2284.897030 832.000000 75.439960
-2286.884909 832.000000 75.220102
-2288.872788 832.000000 75.000245
-2290.860667 832.000000 74.780387
-2292.848546 832.000000 74.560529
-2294.836425 832.000000 74.340672
-2296.824304 832.000000 74.120814
-2298.812183 832.000000 73.900957
-2300.800062 832.000000 73.681099
-2302.787940 832.000000 73.461242
-2304.775819 832.000000 73.241384
-2306.763698 832.000000 73.021526
-2308.751577 832.000000 72.801669
-2310.739456 832.000000 72.581811
-2312.727335 832.000000 72.361954
-2316.000000 832.000000 72.000000
-2316.000000 830.000000 72.000000
-2316.000000 828.000000 72.000000
-2316.000000 826.000000 72.000000
-2316.000000 824.000000 72.000000
-2316.000000 822.000000 72.000000
-2316.000000 820.000000 72.000000
-2316.000000 818.000000 72.000000
-2316.000000 816.000000 72.000000
-2316.000000 814.000000 72.000000
-2316.000000 812.000000 72.000000
-2316.000000 810.000000 72.000000
-2316.000000 808.000000 72.000000
-2316.000000 806.000000 72.000000
-2316.000000 804.000000 72.000000
-2316.000000 802.000000 72.000000
-2316.000000 800.000000 72.000000
-2316.000000 798.000000 72.000000
-2316.000000 796.000000 72.000000
-2316.000000 794.000000 72.000000
-2316.000000 792.000000 72.000000
-2316.000000 790.000000 72.000000
-2316.000000 788.000000 72.000000
-2316.000000 786.000000 72.000000
-2316.000000 784.000000 72.000000
-2316.000000 782.000000 72.000000
-2316.000000 780.000000 72.000000
-2316.000000 778.000000 72.000000
-2316.000000 776.000000 72.000000
-2316.000000 774.000000 72.000000
-2316.000000 772.000000 72.000000
-2316.000000 770.000000 72.000000
-2316.000000 768.000000 72.000000
-2316.000000 766.000000 72.000000
-2316.000000 764.000000 72.000000
-2316.000000 762.000000 72.000000
-2316.000000 760.000000 72.000000
-2316.000000 758.000000 72.000000
-2316.000000 756.000000 72.000000
-2316.000000 754.000000 72.000000
-2316.000000 752.000000 72.000000
-2316.000000 750.000000 72.000000
-2316.000000 748.000000 72.000000
-2316.000000 746.000000 72.000000
-2316.000000 744.000000 72.000000
-2316.000000 742.000000 72.000000
-2316.000000 740.000000 72.000000
-2316.000000 738.000000 72.000000
-2316.000000 736.000000 72.000000
-2316.000000 734.000000 72.000000
-2316.000000 732.000000 72.000000
-2316.000000 730.000000 72.000000
-2316.000000 728.000000 72.000000
-2316.000000 726.000000 72.000000
-2316.000000 724.000000 72.000000
-2316.000000 722.000000 72.000000
-2316.000000 720.000000 72.000000
-2316.000000 718.000000 72.000000
-2316.000000 716.000000 72.000000
-2316.000000 714.000000 72.000000
-2316.000000 712.000000 72.000000
-2316.000000 710.000000 72.000000
-2316.000000 708.000000 72.000000
-2316.000000 706.000000 72.000000
-2316.000000 704.000000 72.000000
-2316.000000 702.000000 72.000000
-2316.000000 700.000000 72.000000
-2316.000000 698.000000 72.000000
-2316.000000 696.000000 72.000000
-2316.000000 694.000000 72.000000
-2316.000000 692.000000 72.000000
-2316.000000 690.000000 72.000000
-2316.000000 688.000000 72.000000
-2316.000000 686.000000 72.000000
-2316.000000 684.000000 72.000000
-2316.000000 682.000000 72.000000
-2316.000000 680.000000 72.000000
-2316.000000 678.000000 72.000000
-2316.000000 676.000000 72.000000
-2316.000000 674.000000 72.000000
-2316.000000 672.000000 72.000000
-2316.000000 670.000000 72.000000
-2316.000000 668.000000 72.000000
-2316.000000 666.000000 72.000000
-2316.000000 664.000000 72.000000
-2316.000000 662.000000 72.000000
-2316.000000 660.000000 72.000000
-2316.000000 658.000000 72.000000
-2316.000000 656.000000 72.000000
-2316.000000 654.000000 72.000000
-2316.000000 652.000000 72.000000
-2316.000000 650.000000 72.000000
-2316.000000 648.000000 72.000000
-2316.000000 646.000000 72.000000
-2316.000000 644.000000 72.000000
-2316.000000 642.000000 72.000000
-2316.000000 640.000000 72.000000
-2316.000000 638.000000 72.000000
-2316.000000 636.000000 72.000000
-2316.000000 634.000000 72.000000
-2316.000000 632.000000 72.000000
-2316.000000 630.000000 72.000000
-2316.000000 628.000000 72.000000
-2316.000000 626.000000 72.000000
-2316.000000 624.000000 72.000000
-2316.000000 622.000000 72.000000
-2316.000000 620.000000 72.000000
-2316.000000 618.000000 72.000000
-2316.000000 616.000000 72.000000
-2316.000000 614.000000 72.000000
-2316.000000 612.000000 72.000000
-2316.000000 610.000000 72.000000
-2316.000000 608.000000 72.000000
-2316.000000 606.000000 72.000000
-2316.000000 604.000000 72.000000
-2316.000000 602.000000 72.000000
-2316.000000 600.000000 72.000000
-2316.000000 598.000000 72.000000
-2316.000000 596.000000 72.000000
-2316.000000 594.000000 72.000000
-2316.000000 592.000000 72.000000
-2316.000000 590.000000 72.000000
-2316.000000 588.000000 72.000000
-2316.000000 586.000000 72.000000
-2316.000000 584.000000 72.000000
-2316.000000 582.000000 72.000000
-2316.000000 580.000000 72.000000
-2316.000000 578.000000 72.000000
-2316.000000 576.000000 72.000000
-2316.000000 574.000000 72.000000
-2316.000000 572.000000 72.000000
-2316.000000 570.000000 72.000000
-2316.000000 568.000000 72.000000
-2316.000000 566.000000 72.000000
-2316.000000 564.000000 72.000000
-2316.000000 562.000000 72.000000
-2316.000000 560.000000 72.000000
-2316.000000 558.000000 72.000000
-2316.000000 556.000000 72.000000
-2316.000000 554.000000 72.000000
-2316.000000 552.000000 72.000000
-2316.000000 550.000000 72.000000
-2316.000000 548.000000 72.000000
-2316.000000 546.000000 72.000000
-2316.000000 544.000000 72.000000
-2316.000000 542.000000 72.000000
-2316.000000 540.000000 72.000000
-2316.000000 538.000000 72.000000
-2316.000000 536.000000 72.000000
-2316.000000 534.000000 72.000000
-2316.000000 532.000000 72.000000
-2316.000000 530.000000 72.000000
-2316.000000 528.000000 72.000000
-2316.000000 526.000000 72.000000
-2316.000000 524.000000 72.000000
-2316.000000 522.000000 72.000000
-2316.000000 520.000000 72.000000
-2316.000000 518.000000 72.000000
-2316.000000 516.000000 72.000000
-2316.000000 514.000000 72.000000
-2316.000000 512.000000 72.000000
-2316.000000 510.000000 72.000000
-2316.000000 508.000000 72.000000
-2316.000000 506.000000 72.000000
-2316.000000 504.000000 72.000000
-2316.000000 502.000000 72.000000
-2316.000000 500.000000 72.000000
-2316.000000 498.000000 72.000000
-2316.000000 496.000000 72.000000
-2316.000000 494.000000 72.000000
-2316.000000 492.000000 72.000000
-2316.000000 490.000000 72.000000
-2316.000000 488.000000 72.000000
-2316.000000 486.000000 72.000000
-2316.000000 484.000000 72.000000
-2316.000000 482.000000 72.000000
-2316.000000 480.000000 72.000000
-2316.000000 478.000000 72.000000
-2316.000000 476.000000 72.000000
-2316.000000 474.000000 72.000000
-2316.000000 472.000000 72.000000
-2316.000000 470.000000 72.000000
